ply
format ascii 1.0
comment VCGLIB generated
element vertex 1076
property double x
property double y
property double z
property double nx
property double ny
property double nz
element face 0
property list uchar int vertex_indices
end_header
-467.0397 -165.0005 189.7092 -0 -1 -0 
-467.0397 -165.0005 199.6938 -0 -1 -0 
-467.0397 -165.0005 209.6785 -0 -1 -0 
-467.0397 -165.0005 219.6633 -0 -1 -0 
-467.0397 -165.0005 229.6479 -0 -1 -0 
-467.0397 -165.0005 239.6326 -0 -1 -0 
-467.0397 -165.0005 249.6172 -0 -1 -0 
-467.0397 -165.0005 259.602 0 -1 -0 
-467.0397 -165.0005 269.5867 -0 -1 0 
-467.0397 -165.0005 279.5714 -0 -1 -0 
-467.0397 -165.0005 289.5561 -0 -1 -0 
-467.0397 -165.0005 299.5407 -0 -1 -0 
-467.0397 -165.0005 309.5255 -0 -1 -0 
-467.0397 -165.0005 319.5102 -0 -1 0 
-467.0397 -165.0005 329.4948 -0 -1 -0 
-467.0397 -165.0005 339.4796 -0 -1 -0 
-467.0397 -165.0005 349.4642 0 -1 -0 
-467.0397 -165.0005 359.4489 -0 -1 0 
-467.0397 -165.0005 369.4337 0 -1 -0 
-467.0397 -165.0005 379.4183 -0 -1 0 
-467.0397 -165.0005 389.403 0 -1 -0 
-467.0397 -165.0005 399.3876 0 -0.9848191 0.1735839 
-467.0397 -161.8864 409.3724 0 -0.8089627 0.58786 
-467.0397 -160.9325 410.0001 0 -0.3498366 0.9368107 
-456.9814 -160.9325 0.001342773 0.07786638 -0.5876496 -0.8053601 
-456.9814 -165.0005 9.98468 -0 -0.9305072 -0.3662737 
-456.9814 -165.0005 19.96942 0 -1 -0 
-456.9814 -165.0005 29.95404 0 -1 -0 
-456.9814 -165.0005 39.93878 0 -1 -0 
-456.9814 -165.0005 49.9234 -0 -1 0 
-456.9814 -165.0005 59.90814 -0 -1 0 
-456.9814 -165.0005 69.89288 0 -1 -0 
-456.9814 -165.0005 79.8775 0 -1 -0 
-456.9814 -165.0005 89.86224 0 -1 -0 
-456.9814 -165.0005 99.84686 -0 -1 0 
-456.9814 -165.0005 109.8316 -0 -1 0 
-456.9814 -165.0005 119.8163 0 -1 -0 
-456.9814 -165.0005 129.801 0 -1 -0 
-456.9814 -165.0005 139.7857 0 -1 -0 
-456.9814 -165.0005 149.7703 -0 -1 0 
-456.9814 -165.0005 159.7551 0 -1 -0 
-456.9814 -165.0005 169.7398 0 -1 -0 
-456.9814 -165.0005 179.7244 -0 -1 0 
-456.9814 -165.0005 189.7092 0 -1 -0 
-456.9814 -165.0005 199.6938 -0 -1 0 
-456.9814 -165.0005 209.6785 -0 -1 0 
-456.9814 -165.0005 219.6633 0 -1 -0 
-456.9814 -165.0005 229.6479 0 -1 -0 
-456.9814 -165.0005 239.6326 -0 -1 0 
-456.9814 -165.0005 249.6172 -0 -1 0 
-456.9814 -165.0005 259.602 -0 -1 0 
-456.9814 -165.0005 269.5867 0 -1 -0 
-456.9814 -165.0005 279.5714 0 -1 -0 
-456.9814 -165.0005 289.5561 -0 -1 0 
-456.9814 -165.0005 299.5407 -0 -1 0 
-456.9814 -165.0005 309.5255 0 -1 -0 
-456.9814 -165.0005 319.5102 0 -1 -0 
-456.9814 -165.0005 329.4948 -0 -1 0 
-456.9814 -165.0005 339.4796 0 -1 -0 
-456.9814 -165.0005 349.4642 -0 -1 0 
-456.9814 -165.0005 359.4489 -0 -1 0 
-456.9814 -165.0005 369.4337 0 -1 -0 
-456.9814 -165.0005 379.4183 0 -1 -0 
-456.9814 -165.0005 389.403 -0 -1 0 
-456.9814 -165.0005 399.3876 0 -0.9848192 0.1735839 
-456.9814 -161.8864 409.3724 0 -0.8089627 0.58786 
-456.9814 -160.9325 410.0001 -0 -0.3498366 0.9368108 
-446.9231 -160.9325 0.001342773 0 -0.4184245 -0.9082516 
-446.9231 -165.0005 9.98468 0 -0.9305072 -0.3662736 
-446.9231 -165.0005 19.96942 -0 -1 0 
-446.9231 -165.0005 29.95404 0 -1 -0 
-446.9231 -165.0005 39.93878 -0 -1 0 
-446.9231 -165.0005 49.9234 0 -1 -0 
-446.9231 -165.0005 59.90814 0 -1 -0 
-446.9231 -165.0005 69.89288 -0 -1 0 
-446.9231 -165.0005 79.8775 -0 -1 0 
-446.9231 -165.0005 89.86224 -0 -1 0 
-446.9231 -165.0005 99.84686 0 -1 -0 
-446.9231 -165.0005 109.8316 0 -1 -0 
-446.9231 -165.0005 119.8163 -0 -1 0 
-446.9231 -165.0005 129.801 -0 -1 0 
-446.9231 -165.0005 139.7857 -0 -1 0 
-446.9231 -165.0005 149.7703 0 -1 -0 
-446.9231 -165.0005 159.7551 -0 -1 0 
-446.9231 -165.0005 169.7398 -0 -1 0 
-446.9231 -165.0005 179.7244 0 -1 -0 
-446.9231 -165.0005 189.7092 -0 -1 0 
-446.9231 -165.0005 199.6938 0 -1 -0 
-446.9231 -165.0005 209.6785 0 -1 -0 
-446.9231 -165.0005 219.6633 -0 -1 0 
-446.9231 -165.0005 229.6479 -0 -1 0 
-446.9231 -165.0005 239.6326 0 -1 -0 
-446.9231 -165.0005 249.6172 0 -1 -0 
-446.9231 -165.0005 259.602 0 -1 -0 
-446.9231 -165.0005 269.5867 -0 -1 0 
-446.9231 -165.0005 279.5714 -0 -1 0 
-446.9231 -165.0005 289.5561 0 -1 -0 
-446.9231 -165.0005 299.5407 0 -1 -0 
-446.9231 -165.0005 309.5255 -0 -1 0 
-446.9231 -165.0005 319.5102 -0 -1 0 
-446.9231 -165.0005 329.4948 0 -1 -0 
-446.9231 -165.0005 339.4796 -0 -1 0 
-446.9231 -165.0005 349.4642 0 -1 -0 
-446.9231 -165.0005 359.4489 0 -1 -0 
-446.9231 -165.0005 369.4337 -0 -1 0 
-446.9231 -165.0005 379.4183 -0 -1 0 
-446.9231 -165.0005 389.403 0 -1 -0 
-446.9231 -165.0005 399.3876 -0 -0.9848191 0.1735839 
-446.9231 -161.8864 409.3724 -0 -0.8089626 0.5878601 
-446.9231 -160.9325 410.0001 0 -0.3498366 0.9368107 
-436.8648 -160.9325 0.001342773 -0.07786631 -0.5876496 -0.80536 
-436.8648 -165.0005 9.98468 -0 -0.9305072 -0.3662736 
-436.8648 -165.0005 19.96942 0 -1 -0 
-436.8648 -165.0005 29.95404 -0 -1 0 
-436.8648 -165.0005 39.93878 0 -1 -0 
-436.8648 -165.0005 49.9234 -0 -1 0 
-436.8648 -165.0005 59.90814 -0 -1 0 
-436.8648 -165.0005 69.89288 0 -1 -0 
-436.8648 -165.0005 79.8775 0 -1 -0 
-436.8648 -165.0005 89.86224 0 -1 -0 
-436.8648 -165.0005 99.84686 -0 -1 0 
-436.8648 -165.0005 109.8316 -0 -1 0 
-436.8648 -165.0005 119.8163 0 -1 -0 
-436.8648 -165.0005 129.801 0 -1 -0 
-436.8648 -165.0005 139.7857 0 -1 -0 
-436.8648 -165.0005 149.7703 -0 -1 0 
-436.8648 -165.0005 159.7551 0 -1 -0 
-436.8648 -165.0005 169.7398 0 -1 -0 
-436.8648 -165.0005 179.7244 -0 -1 0 
-436.8648 -165.0005 189.7092 0 -1 -0 
-436.8648 -165.0005 199.6938 -0 -1 0 
-436.8648 -165.0005 209.6785 -0 -1 0 
-436.8648 -165.0005 219.6633 0 -1 -0 
-436.8648 -165.0005 229.6479 0 -1 -0 
-436.8648 -165.0005 239.6326 -0 -1 0 
-436.8648 -165.0005 249.6172 -0 -1 0 
-436.8648 -165.0005 259.602 -0 -1 0 
-436.8648 -165.0005 269.5867 0 -1 -0 
-436.8648 -165.0005 279.5714 0 -1 -0 
-436.8648 -165.0005 289.5561 -0 -1 0 
-436.8648 -165.0005 299.5407 -0 -1 0 
-436.8648 -165.0005 309.5255 0 -1 -0 
-436.8648 -165.0005 319.5102 0 -1 -0 
-436.8648 -165.0005 329.4948 -0 -1 0 
-436.8648 -165.0005 339.4796 0 -1 -0 
-436.8648 -165.0005 349.4642 -0 -1 0 
-436.8648 -165.0005 359.4489 -0 -1 0 
-436.8648 -165.0005 369.4337 0 -1 -0 
-436.8648 -165.0005 379.4183 0 -1 -0 
-436.8648 -165.0005 389.403 -0 -1 0 
-436.8648 -165.0005 399.3876 0 -0.9848191 0.1735839 
-436.8648 -161.8864 409.3724 0 -0.8089626 0.5878602 
-436.8648 -160.9325 410.0001 -0 -0.3498366 0.9368108 
-426.8065 -160.9325 0.001342773 -0.07786681 -0.5876495 -0.8053601 
-426.8065 -165.0005 9.98468 0 -0.9305072 -0.3662737 
-426.8065 -165.0005 19.96942 -0 -1 0 
-426.8065 -165.0005 29.95404 -0 -1 0 
-426.8065 -165.0005 39.93878 -0 -1 0 
-426.8065 -165.0005 49.9234 0 -1 -0 
-426.8065 -165.0005 59.90814 0 -1 -0 
-426.8065 -165.0005 69.89288 -0 -1 0 
-426.8065 -165.0005 79.8775 -0 -1 0 
-426.8065 -165.0005 89.86224 -0 -1 0 
-426.8065 -165.0005 99.84686 0 -1 -0 
-426.8065 -165.0005 109.8316 0 -1 -0 
-426.8065 -165.0005 119.8163 -0 -1 0 
-426.8065 -165.0005 129.801 -0 -1 0 
-426.8065 -165.0005 139.7857 -0 -1 0 
-426.8065 -165.0005 149.7703 0 -1 -0 
-426.8065 -165.0005 159.7551 -0 -1 0 
-426.8065 -165.0005 169.7398 -0 -1 0 
-426.8065 -165.0005 179.7244 0 -1 -0 
-426.8065 -165.0005 189.7092 -0 -1 0 
-426.8065 -165.0005 199.6938 0 -1 -0 
-426.8065 -165.0005 209.6785 0 -1 -0 
-426.8065 -165.0005 219.6633 -0 -1 0 
-426.8065 -165.0005 229.6479 -0 -1 0 
-426.8065 -165.0005 239.6326 0 -1 -0 
-426.8065 -165.0005 249.6172 0 -1 -0 
-426.8065 -165.0005 259.602 0 -1 -0 
-426.8065 -165.0005 269.5867 -0 -1 0 
-426.8065 -165.0005 279.5714 -0 -1 0 
-426.8065 -165.0005 289.5561 0 -1 -0 
-426.8065 -165.0005 299.5407 0 -1 -0 
-426.8065 -165.0005 309.5255 -0 -1 0 
-426.8065 -165.0005 319.5102 -0 -1 0 
-426.8065 -165.0005 329.4948 0 -1 -0 
-426.8065 -165.0005 339.4796 -0 -1 0 
-426.8065 -165.0005 349.4642 0 -1 -0 
-426.8065 -165.0005 359.4489 0 -1 -0 
-426.8065 -165.0005 369.4337 -0 -1 0 
-426.8065 -165.0005 379.4183 -0 -1 0 
-426.8065 -165.0005 389.403 0 -1 -0 
-426.8065 -165.0005 399.3876 -0 -0.9848191 0.1735839 
-426.8065 -161.8864 409.3724 -0 -0.8089626 0.5878601 
-426.8065 -160.9325 410.0001 0 -0.3498366 0.9368107 
-416.7483 -160.9325 0.001342773 0.07786698 -0.5876495 -0.80536 
-416.7483 -165.0005 9.98468 -0 -0.9305072 -0.3662737 
-416.7483 -165.0005 19.96942 0 -1 -0 
-416.7483 -165.0005 29.95404 0 -1 -0 
-416.7483 -165.0005 39.93878 0 -1 -0 
-416.7483 -165.0005 49.9234 -0 -1 0 
-416.7483 -165.0005 59.90814 -0 -1 0 
-416.7483 -165.0005 69.89288 0 -1 -0 
-416.7483 -165.0005 79.8775 0 -1 -0 
-416.7483 -165.0005 89.86224 0 -1 -0 
-416.7483 -165.0005 99.84686 -0 -1 0 
-416.7483 -165.0005 109.8316 -0 -1 0 
-416.7483 -165.0005 119.8163 0 -1 -0 
-416.7483 -165.0005 129.801 0 -1 -0 
-416.7483 -165.0005 139.7857 0 -1 -0 
-416.7483 -165.0005 149.7703 -0 -1 0 
-416.7483 -165.0005 159.7551 0 -1 -0 
-416.7483 -165.0005 169.7398 0 -1 -0 
-416.7483 -165.0005 179.7244 -0 -1 0 
-416.7483 -165.0005 189.7092 0 -1 -0 
-416.7483 -165.0005 199.6938 -0 -1 0 
-416.7483 -165.0005 209.6785 -0 -1 0 
-416.7483 -165.0005 219.6633 0 -1 -0 
-416.7483 -165.0005 229.6479 0 -1 -0 
-416.7483 -165.0005 239.6326 -0 -1 0 
-416.7483 -165.0005 249.6172 -0 -1 0 
-416.7483 -165.0005 259.602 -0 -1 0 
-416.7483 -165.0005 269.5867 0 -1 -0 
-416.7483 -165.0005 279.5714 0 -1 -0 
-416.7483 -165.0005 289.5561 -0 -1 0 
-416.7483 -165.0005 299.5407 -0 -1 0 
-416.7483 -165.0005 309.5255 0 -1 -0 
-416.7483 -165.0005 319.5102 0 -1 -0 
-416.7483 -165.0005 329.4948 -0 -1 0 
-416.7483 -165.0005 339.4796 0 -1 -0 
-416.7483 -165.0005 349.4642 -0 -1 0 
-416.7483 -165.0005 359.4489 -0 -1 0 
-416.7483 -165.0005 369.4337 0 -1 -0 
-416.7483 -165.0005 379.4183 0 -1 -0 
-416.7483 -165.0005 389.403 -0 -1 0 
-416.7483 -165.0005 399.3876 0 -0.9848191 0.1735839 
-416.7483 -161.8864 409.3724 0 -0.8089627 0.58786 
-416.7483 -160.9325 410.0001 -0 -0.3498367 0.9368107 
-406.69 -160.9325 0.001342773 0.07786646 -0.5876495 -0.8053601 
-406.69 -165.0005 9.98468 -0 -0.9305072 -0.3662736 
-406.69 -165.0005 19.96942 -0 -1 0 
-406.69 -165.0005 29.95404 -0 -1 -0 
-406.69 -165.0005 39.93878 -0 -1 -0 
-406.69 -165.0005 49.9234 -0 -1 0 
-406.69 -165.0005 59.90814 -0 -1 -0 
-406.69 -165.0005 69.89288 -0 -1 -0 
-406.69 -165.0005 79.8775 -0 -1 -0 
-406.69 -165.0005 89.86224 0 -1 -0 
-406.69 -165.0005 99.84686 -0 -1 0 
-406.69 -165.0005 109.8316 -0 -1 -0 
-406.69 -165.0005 119.8163 -0 -1 -0 
-406.69 -165.0005 129.801 -0 -1 -0 
-406.69 -165.0005 139.7857 -0 -1 -0 
-406.69 -165.0005 149.7703 -0 -1 -0 
-406.69 -165.0005 159.7551 -0 -1 -0 
-406.69 -165.0005 169.7398 0 -1 -0 
-406.69 -165.0005 179.7244 0 -1 -0 
-406.69 -165.0005 189.7092 -0 -1 -0 
-406.69 -165.0005 199.6938 -0 -1 0 
-406.69 -165.0005 209.6785 -0 -1 -0 
-406.69 -165.0005 219.6633 -0 -1 0 
-406.69 -165.0005 229.6479 -0 -1 -0 
-406.69 -165.0005 239.6326 -0 -1 0 
-406.69 -165.0005 249.6172 -0 -1 -0 
-406.69 -165.0005 259.602 0 -1 -0 
-406.69 -165.0005 269.5867 -0 -1 0 
-406.69 -165.0005 279.5714 0 -1 -0 
-406.69 -165.0005 289.5561 -0 -1 -0 
-406.69 -165.0005 299.5407 -0 -1 -0 
-406.69 -165.0005 309.5255 -0 -1 -0 
-406.69 -165.0005 319.5102 -0 -1 -0 
-406.69 -165.0005 329.4948 -0 -1 -0 
-406.69 -165.0005 339.4796 -0 -1 -0 
-406.69 -165.0005 349.4642 0 -1 -0 
-406.69 -165.0005 359.4489 -0 -1 -0 
-406.69 -165.0005 369.4337 -0 -1 -0 
-406.69 -165.0005 379.4183 -0 -1 0 
-406.69 -165.0005 389.403 -0 -1 -0 
-406.69 -165.0005 399.3876 0 -0.9848191 0.1735839 
-406.69 -161.8864 409.3724 0 -0.8089626 0.5878601 
-406.69 -160.9325 410.0001 0 -0.3498366 0.9368107 
-396.6317 -160.9325 0.001342773 0.07786636 -0.5876496 -0.8053601 
-396.6317 -165.0005 9.98468 -0 -0.9305072 -0.3662737 
-396.6317 -165.0005 19.96942 0 -1 -0 
-396.6317 -165.0005 29.95404 -0 -1 0 
-396.6317 -165.0005 39.93878 0 -1 -0 
-396.6317 -165.0005 49.9234 -0 -1 0 
-396.6317 -165.0005 59.90814 -0 -1 0 
-396.6317 -165.0005 69.89288 0 -1 -0 
-396.6317 -165.0005 79.8775 0 -1 -0 
-396.6317 -165.0005 89.86224 0 -1 -0 
-396.6317 -165.0005 99.84686 -0 -1 0 
-396.6317 -165.0005 109.8316 -0 -1 0 
-396.6317 -165.0005 119.8163 0 -1 -0 
-396.6317 -165.0005 129.801 0 -1 -0 
-396.6317 -165.0005 139.7857 0 -1 -0 
-396.6317 -165.0005 149.7703 -0 -1 0 
-396.6317 -165.0005 159.7551 0 -1 -0 
-396.6317 -165.0005 169.7398 0 -1 -0 
-396.6317 -165.0005 179.7244 -0 -1 0 
-396.6317 -165.0005 189.7092 0 -1 -0 
-396.6317 -165.0005 199.6938 -0 -1 0 
-396.6317 -165.0005 209.6785 -0 -1 0 
-396.6317 -165.0005 219.6633 0 -1 -0 
-396.6317 -165.0005 229.6479 0 -1 -0 
-396.6317 -165.0005 239.6326 -0 -1 0 
-396.6317 -165.0005 249.6172 -0 -1 0 
-396.6317 -165.0005 259.602 -0 -1 0 
-396.6317 -165.0005 269.5867 0 -1 -0 
-396.6317 -165.0005 279.5714 0 -1 -0 
-396.6317 -165.0005 289.5561 -0 -1 0 
-396.6317 -165.0005 299.5407 -0 -1 0 
-396.6317 -165.0005 309.5255 0 -1 -0 
-396.6317 -165.0005 319.5102 0 -1 -0 
-396.6317 -165.0005 329.4948 -0 -1 0 
-396.6317 -165.0005 339.4796 0 -1 -0 
-396.6317 -165.0005 349.4642 -0 -1 0 
-396.6317 -165.0005 359.4489 -0 -1 0 
-396.6317 -165.0005 369.4337 0 -1 -0 
-396.6317 -165.0005 379.4183 0 -1 -0 
-396.6317 -165.0005 389.403 -0 -1 0 
-396.6317 -165.0005 399.3876 0 -0.9848191 0.1735839 
-396.6317 -161.8864 409.3724 0 -0.8089626 0.5878601 
-396.6317 -160.9325 410.0001 -0 -0.3498367 0.9368107 
-386.5734 -160.9325 0.001342773 0 -0.4184245 -0.9082516 
-386.5734 -165.0005 9.98468 0 -0.9305072 -0.3662736 
-386.5734 -165.0005 19.96942 -0 -1 0 
-386.5734 -165.0005 29.95404 -0 -1 0 
-386.5734 -165.0005 39.93878 -0 -1 0 
-386.5734 -165.0005 49.9234 0 -1 -0 
-386.5734 -165.0005 59.90814 0 -1 -0 
-386.5734 -165.0005 69.89288 -0 -1 0 
-386.5734 -165.0005 79.8775 -0 -1 0 
-386.5734 -165.0005 89.86224 -0 -1 0 
-386.5734 -165.0005 99.84686 0 -1 -0 
-386.5734 -165.0005 109.8316 0 -1 -0 
-386.5734 -165.0005 119.8163 -0 -1 0 
-386.5734 -165.0005 129.801 -0 -1 0 
-386.5734 -165.0005 139.7857 -0 -1 0 
-386.5734 -165.0005 149.7703 0 -1 -0 
-386.5734 -165.0005 159.7551 -0 -1 0 
-386.5734 -165.0005 169.7398 -0 -1 0 
-386.5734 -165.0005 179.7244 0 -1 -0 
-386.5734 -165.0005 189.7092 -0 -1 0 
-386.5734 -165.0005 199.6938 0 -1 -0 
-386.5734 -165.0005 209.6785 0 -1 -0 
-386.5734 -165.0005 219.6633 -0 -1 0 
-386.5734 -165.0005 229.6479 -0 -1 0 
-386.5734 -165.0005 239.6326 0 -1 -0 
-386.5734 -165.0005 249.6172 0 -1 -0 
-386.5734 -165.0005 259.602 0 -1 -0 
-386.5734 -165.0005 269.5867 -0 -1 0 
-386.5734 -165.0005 279.5714 -0 -1 0 
-386.5734 -165.0005 289.5561 0 -1 -0 
-386.5734 -165.0005 299.5407 0 -1 -0 
-386.5734 -165.0005 309.5255 -0 -1 0 
-386.5734 -165.0005 319.5102 -0 -1 0 
-386.5734 -165.0005 329.4948 0 -1 -0 
-386.5734 -165.0005 339.4796 -0 -1 0 
-386.5734 -165.0005 349.4642 0 -1 -0 
-386.5734 -165.0005 359.4489 0 -1 -0 
-386.5734 -165.0005 369.4337 -0 -1 0 
-386.5734 -165.0005 379.4183 -0 -1 0 
-386.5734 -165.0005 389.403 0 -1 -0 
-386.5734 -165.0005 399.3876 -0 -0.9848191 0.1735839 
-386.5734 -161.8864 409.3724 -0 -0.8089626 0.5878601 
-386.5734 -160.9325 410.0001 0 -0.3498366 0.9368107 
-376.5151 -160.9325 0.001342773 -0.07786629 -0.5876495 -0.8053601 
-376.5151 -165.0005 9.98468 -0 -0.9305072 -0.3662736 
-376.5151 -165.0005 19.96942 0 -1 -0 
-376.5151 -165.0005 29.95404 0 -1 -0 
-376.5151 -165.0005 39.93878 0 -1 -0 
-376.5151 -165.0005 49.9234 -0 -1 0 
-376.5151 -165.0005 59.90814 -0 -1 0 
-376.5151 -165.0005 69.89288 0 -1 -0 
-376.5151 -165.0005 79.8775 0 -1 -0 
-376.5151 -165.0005 89.86224 0 -1 -0 
-376.5151 -165.0005 99.84686 -0 -1 0 
-376.5151 -165.0005 109.8316 -0 -1 0 
-376.5151 -165.0005 119.8163 0 -1 -0 
-376.5151 -165.0005 129.801 0 -1 -0 
-376.5151 -165.0005 139.7857 0 -1 -0 
-376.5151 -165.0005 149.7703 -0 -1 0 
-376.5151 -165.0005 159.7551 0 -1 -0 
-376.5151 -165.0005 169.7398 0 -1 -0 
-376.5151 -165.0005 179.7244 -0 -1 0 
-376.5151 -165.0005 189.7092 0 -1 -0 
-376.5151 -165.0005 199.6938 -0 -1 0 
-376.5151 -165.0005 209.6785 -0 -1 0 
-376.5151 -165.0005 219.6633 0 -1 -0 
-376.5151 -165.0005 229.6479 0 -1 -0 
-376.5151 -165.0005 239.6326 -0 -1 0 
-376.5151 -165.0005 249.6172 -0 -1 0 
-376.5151 -165.0005 259.602 -0 -1 0 
-376.5151 -165.0005 269.5867 0 -1 -0 
-376.5151 -165.0005 279.5714 0 -1 -0 
-376.5151 -165.0005 289.5561 -0 -1 0 
-376.5151 -165.0005 299.5407 -0 -1 0 
-376.5151 -165.0005 309.5255 0 -1 -0 
-376.5151 -165.0005 319.5102 0 -1 -0 
-376.5151 -165.0005 329.4948 -0 -1 0 
-376.5151 -165.0005 339.4796 0 -1 -0 
-376.5151 -165.0005 349.4642 -0 -1 0 
-376.5151 -165.0005 359.4489 -0 -1 0 
-376.5151 -165.0005 369.4337 0 -1 -0 
-376.5151 -165.0005 379.4183 0 -1 -0 
-376.5151 -165.0005 389.403 -0 -1 0 
-376.5151 -165.0005 399.3876 0 -0.9848191 0.1735839 
-376.5151 -161.8864 409.3724 0 -0.8089626 0.58786 
-376.5151 -160.9325 410.0001 -0 -0.3498366 0.9368107 
-366.4568 -160.9325 0.001342773 -0.07786682 -0.5876496 -0.80536 
-366.4568 -165.0005 9.98468 0 -0.9305072 -0.3662737 
-366.4568 -165.0005 19.96942 -0 -1 0 
-366.4568 -165.0005 29.95404 0 -1 -0 
-366.4568 -165.0005 39.93878 -0 -1 0 
-366.4568 -165.0005 49.9234 0 -1 -0 
-366.4568 -165.0005 59.90814 0 -1 -0 
-366.4568 -165.0005 69.89288 -0 -1 0 
-366.4568 -165.0005 79.8775 -0 -1 0 
-366.4568 -165.0005 89.86224 -0 -1 0 
-366.4568 -165.0005 99.84686 0 -1 -0 
-366.4568 -165.0005 109.8316 0 -1 -0 
-366.4568 -165.0005 119.8163 -0 -1 0 
-366.4568 -165.0005 129.801 -0 -1 0 
-366.4568 -165.0005 139.7857 -0 -1 0 
-366.4568 -165.0005 149.7703 0 -1 -0 
-366.4568 -165.0005 159.7551 -0 -1 0 
-366.4568 -165.0005 169.7398 -0 -1 0 
-366.4568 -165.0005 179.7244 0 -1 -0 
-366.4568 -165.0005 189.7092 -0 -1 0 
-366.4568 -165.0005 199.6938 0 -1 -0 
-366.4568 -165.0005 209.6785 0 -1 -0 
-366.4568 -165.0005 219.6633 -0 -1 0 
-366.4568 -165.0005 229.6479 -0 -1 0 
-366.4568 -165.0005 239.6326 0 -1 -0 
-366.4568 -165.0005 249.6172 0 -1 -0 
-366.4568 -165.0005 259.602 0 -1 -0 
-366.4568 -165.0005 269.5867 -0 -1 0 
-366.4568 -165.0005 279.5714 -0 -1 0 
-366.4568 -165.0005 289.5561 0 -1 -0 
-366.4568 -165.0005 299.5407 0 -1 -0 
-366.4568 -165.0005 309.5255 -0 -1 0 
-366.4568 -165.0005 319.5102 -0 -1 0 
-366.4568 -165.0005 329.4948 0 -1 -0 
-366.4568 -165.0005 339.4796 -0 -1 0 
-366.4568 -165.0005 349.4642 0 -1 -0 
-366.4568 -165.0005 359.4489 0 -1 -0 
-366.4568 -165.0005 369.4337 -0 -1 0 
-366.4568 -165.0005 379.4183 -0 -1 0 
-366.4568 -165.0005 389.403 0 -1 -0 
-366.4568 -165.0005 399.3876 -0 -0.9848191 0.1735839 
-366.4568 -161.8864 409.3724 -0 -0.8089626 0.5878601 
-366.4568 -160.9325 410.0001 0 -0.3498366 0.9368108 
-356.3986 -160.9325 0.001342773 0.07786699 -0.5876496 -0.80536 
-356.3986 -165.0005 9.98468 -0 -0.9305072 -0.3662736 
-356.3986 -165.0005 19.96942 0 -1 -0 
-356.3986 -165.0005 29.95404 0 -1 -0 
-356.3986 -165.0005 39.93878 0 -1 -0 
-356.3986 -165.0005 49.9234 -0 -1 0 
-356.3986 -165.0005 59.90814 -0 -1 0 
-356.3986 -165.0005 69.89288 0 -1 -0 
-356.3986 -165.0005 79.8775 0 -1 -0 
-356.3986 -165.0005 89.86224 0 -1 -0 
-356.3986 -165.0005 99.84686 -0 -1 0 
-356.3986 -165.0005 109.8316 -0 -1 0 
-356.3986 -165.0005 119.8163 0 -1 -0 
-356.3986 -165.0005 129.801 0 -1 -0 
-356.3986 -165.0005 139.7857 0 -1 -0 
-356.3986 -165.0005 149.7703 -0 -1 0 
-356.3986 -165.0005 159.7551 0 -1 -0 
-356.3986 -165.0005 169.7398 0 -1 -0 
-356.3986 -165.0005 179.7244 -0 -1 0 
-356.3986 -165.0005 189.7092 0 -1 -0 
-356.3986 -165.0005 199.6938 -0 -1 0 
-356.3986 -165.0005 209.6785 -0 -1 0 
-356.3986 -165.0005 219.6633 0 -1 -0 
-356.3986 -165.0005 229.6479 0 -1 -0 
-356.3986 -165.0005 239.6326 -0 -1 0 
-356.3986 -165.0005 249.6172 -0 -1 0 
-356.3986 -165.0005 259.602 -0 -1 0 
-356.3986 -165.0005 269.5867 0 -1 -0 
-356.3986 -165.0005 279.5714 0 -1 -0 
-356.3986 -165.0005 289.5561 -0 -1 0 
-356.3986 -165.0005 299.5407 -0 -1 0 
-356.3986 -165.0005 309.5255 0 -1 -0 
-356.3986 -165.0005 319.5102 0 -1 -0 
-356.3986 -165.0005 329.4948 -0 -1 0 
-356.3986 -165.0005 339.4796 0 -1 -0 
-356.3986 -165.0005 349.4642 -0 -1 0 
-356.3986 -165.0005 359.4489 -0 -1 0 
-356.3986 -165.0005 369.4337 0 -1 -0 
-356.3986 -165.0005 379.4183 0 -1 -0 
-356.3986 -165.0005 389.403 -0 -1 0 
-356.3986 -165.0005 399.3876 0 -0.9848191 0.1735839 
-356.3986 -161.8864 409.3724 0 -0.8089627 0.58786 
-356.3986 -160.9325 410.0001 -0 -0.3498367 0.9368107 
-346.3403 -160.9325 0.001342773 0.07786647 -0.5876495 -0.8053602 
-346.3403 -165.0005 9.98468 -0 -0.9305072 -0.3662737 
-346.3403 -165.0005 19.96942 -0 -1 0 
-346.3403 -165.0005 29.95404 -0 -1 -0 
-346.3403 -165.0005 39.93878 -0 -1 -0 
-346.3403 -165.0005 49.9234 0 -1 -0 
-346.3403 -165.0005 59.90814 -0 -1 -0 
-346.3403 -165.0005 69.89288 -0 -1 0 
-346.3403 -165.0005 79.8775 -0 -1 -0 
-346.3403 -165.0005 89.86224 -0 -1 0 
-346.3403 -165.0005 99.84686 0 -1 -0 
-346.3403 -165.0005 109.8316 0 -1 -0 
-346.3403 -165.0005 119.8163 -0 -1 -0 
-346.3403 -165.0005 129.801 0 -1 -0 
-346.3403 -165.0005 139.7857 -0 -1 -0 
-346.3403 -165.0005 149.7703 -0 -1 -0 
-346.3403 -165.0005 159.7551 0 -1 -0 
-346.3403 -165.0005 169.7398 0 -1 -0 
-346.3403 -165.0005 179.7244 -0 -1 -0 
-346.3403 -165.0005 189.7092 -0 -1 -0 
-346.3403 -165.0005 199.6938 -0 -1 0 
-346.3403 -165.0005 209.6785 -0 -1 -0 
-346.3403 -165.0005 219.6633 -0 -1 -0 
-346.3403 -165.0005 229.6479 -0 -1 -0 
-346.3403 -165.0005 239.6326 -0 -1 -0 
-346.3403 -165.0005 249.6172 -0 -1 -0 
-346.3403 -165.0005 259.602 0 -1 -0 
-346.3403 -165.0005 269.5867 -0 -1 0 
-346.3403 -165.0005 279.5714 0 -1 -0 
-346.3403 -165.0005 289.5561 -0 -1 -0 
-346.3403 -165.0005 299.5407 -0 -1 -0 
-346.3403 -165.0005 309.5255 -0 -1 -0 
-346.3403 -165.0005 319.5102 0 -1 -0 
-346.3403 -165.0005 329.4948 -0 -1 -0 
-346.3403 -165.0005 339.4796 -0 -1 0 
-346.3403 -165.0005 349.4642 -0 -1 -0 
-346.3403 -165.0005 359.4489 -0 -1 0 
-346.3403 -165.0005 369.4337 -0 -1 0 
-346.3403 -165.0005 379.4183 0 -1 -0 
-346.3403 -165.0005 389.403 0 -1 -0 
-346.3403 -165.0005 399.3876 0 -0.9848191 0.1735839 
-346.3403 -161.8864 409.3724 -0 -0.8089626 0.5878601 
-346.3403 -160.9325 410.0001 0 -0.3498366 0.9368108 
-336.282 -160.9325 0.001342773 -0.07786682 -0.5876495 -0.80536 
-336.282 -165.0005 9.98468 0 -0.9305072 -0.3662736 
-336.282 -165.0005 19.96942 -0 -1 0 
-336.282 -165.0005 29.95404 -0 -1 0 
-336.282 -165.0005 39.93878 -0 -1 0 
-336.282 -165.0005 49.9234 0 -1 -0 
-336.282 -165.0005 59.90814 0 -1 -0 
-336.282 -165.0005 69.89288 -0 -1 0 
-336.282 -165.0005 79.8775 -0 -1 0 
-336.282 -165.0005 89.86224 -0 -1 0 
-336.282 -165.0005 99.84686 0 -1 -0 
-336.282 -165.0005 109.8316 0 -1 -0 
-336.282 -165.0005 119.8163 -0 -1 0 
-336.282 -165.0005 129.801 -0 -1 0 
-336.282 -165.0005 139.7857 -0 -1 0 
-336.282 -165.0005 149.7703 0 -1 -0 
-336.282 -165.0005 159.7551 -0 -1 0 
-336.282 -165.0005 169.7398 -0 -1 0 
-336.282 -165.0005 179.7244 0 -1 -0 
-336.282 -165.0005 189.7092 -0 -1 0 
-336.282 -165.0005 199.6938 0 -1 -0 
-336.282 -165.0005 209.6785 0 -1 -0 
-336.282 -165.0005 219.6633 -0 -1 0 
-336.282 -165.0005 229.6479 -0 -1 0 
-336.282 -165.0005 239.6326 0 -1 -0 
-336.282 -165.0005 249.6172 0 -1 -0 
-336.282 -165.0005 259.602 0 -1 -0 
-336.282 -165.0005 269.5867 -0 -1 0 
-336.282 -165.0005 279.5714 -0 -1 0 
-336.282 -165.0005 289.5561 0 -1 -0 
-336.282 -165.0005 299.5407 0 -1 -0 
-336.282 -165.0005 309.5255 -0 -1 0 
-336.282 -165.0005 319.5102 -0 -1 0 
-336.282 -165.0005 329.4948 0 -1 -0 
-336.282 -165.0005 339.4796 -0 -1 0 
-336.282 -165.0005 349.4642 0 -1 -0 
-336.282 -165.0005 359.4489 0 -1 -0 
-336.282 -165.0005 369.4337 -0 -1 0 
-336.282 -165.0005 379.4183 -0 -1 0 
-336.282 -165.0005 389.403 0 -1 -0 
-336.282 -165.0005 399.3876 -0 -0.9848191 0.1735839 
-336.282 -161.8864 409.3724 -0 -0.8089626 0.58786 
-336.282 -160.9325 410.0001 0 -0.3498366 0.9368108 
-326.2238 -160.9325 0.001342773 0.07786682 -0.5876495 -0.8053601 
-326.2238 -165.0005 9.98468 -0 -0.9305072 -0.3662736 
-326.2238 -165.0005 19.96942 0 -1 -0 
-326.2238 -165.0005 29.95404 -0 -1 0 
-326.2238 -165.0005 39.93878 0 -1 -0 
-326.2238 -165.0005 49.9234 -0 -1 0 
-326.2238 -165.0005 59.90814 -0 -1 0 
-326.2238 -165.0005 69.89288 0 -1 -0 
-326.2238 -165.0005 79.8775 0 -1 -0 
-326.2238 -165.0005 89.86224 0 -1 -0 
-326.2238 -165.0005 99.84686 -0 -1 0 
-326.2238 -165.0005 109.8316 -0 -1 0 
-326.2238 -165.0005 119.8163 0 -1 -0 
-326.2238 -165.0005 129.801 0 -1 -0 
-326.2238 -165.0005 139.7857 0 -1 -0 
-326.2238 -165.0005 149.7703 -0 -1 0 
-326.2238 -165.0005 159.7551 0 -1 -0 
-326.2238 -165.0005 169.7398 0 -1 -0 
-326.2238 -165.0005 179.7244 -0 -1 0 
-326.2238 -165.0005 189.7092 0 -1 -0 
-326.2238 -165.0005 199.6938 -0 -1 0 
-326.2238 -165.0005 209.6785 -0 -1 0 
-326.2238 -165.0005 219.6633 0 -1 -0 
-326.2238 -165.0005 229.6479 0 -1 -0 
-326.2238 -165.0005 239.6326 -0 -1 0 
-326.2238 -165.0005 249.6172 -0 -1 0 
-326.2238 -165.0005 259.602 -0 -1 0 
-326.2238 -165.0005 269.5867 0 -1 -0 
-326.2238 -165.0005 279.5714 0 -1 -0 
-326.2238 -165.0005 289.5561 -0 -1 0 
-326.2238 -165.0005 299.5407 -0 -1 0 
-326.2238 -165.0005 309.5255 0 -1 -0 
-326.2238 -165.0005 319.5102 0 -1 -0 
-326.2238 -165.0005 329.4948 -0 -1 0 
-326.2238 -165.0005 339.4796 0 -1 -0 
-326.2238 -165.0005 349.4642 -0 -1 0 
-326.2238 -165.0005 359.4489 -0 -1 0 
-326.2238 -165.0005 369.4337 0 -1 -0 
-326.2238 -165.0005 379.4183 0 -1 -0 
-326.2238 -165.0005 389.403 -0 -1 0 
-326.2238 -165.0005 399.3876 0 -0.9848192 0.1735839 
-326.2238 -161.8864 409.3724 0 -0.8089626 0.58786 
-326.2238 -160.9325 410.0001 -0 -0.3498366 0.9368108 
-316.1655 -160.9325 0.001342773 0.07786648 -0.5876495 -0.8053601 
-316.1655 -165.0005 9.98468 -0 -0.9305072 -0.3662737 
-316.1655 -165.0005 19.96942 -0 -1 0 
-316.1655 -165.0005 29.95404 -0 -1 0 
-316.1655 -165.0005 39.93878 -0 -1 0 
-316.1655 -165.0005 49.9234 0 -1 -0 
-316.1655 -165.0005 59.90814 -0 -1 -0 
-316.1655 -165.0005 69.89288 -0 -1 0 
-316.1655 -165.0005 79.8775 -0 -1 -0 
-316.1655 -165.0005 89.86224 0 -1 -0 
-316.1655 -165.0005 99.84686 0 -1 -0 
-316.1655 -165.0005 109.8316 0 -1 -0 
-316.1655 -165.0005 119.8163 -0 -1 -0 
-316.1655 -165.0005 129.801 -0 -1 -0 
-316.1655 -165.0005 139.7857 0 -1 -0 
-316.1655 -165.0005 149.7703 -0 -1 -0 
-316.1655 -165.0005 159.7551 -0 -1 0 
-316.1655 -165.0005 169.7398 -0 -1 -0 
-316.1655 -165.0005 179.7244 -0 -1 0 
-316.1655 -165.0005 189.7092 -0 -1 -0 
-316.1655 -165.0005 199.6938 -0 -1 0 
-316.1655 -165.0005 209.6785 0 -1 -0 
-316.1655 -165.0005 219.6633 -0 -1 -0 
-316.1655 -165.0005 229.6479 -0 -1 0 
-316.1655 -165.0005 239.6326 -0 -1 -0 
-316.1655 -165.0005 249.6172 -0 -1 -0 
-316.1655 -165.0005 259.602 -0 -1 0 
-316.1655 -165.0005 269.5867 -0 -1 0 
-316.1655 -165.0005 279.5714 -0 -1 0 
-316.1655 -165.0005 289.5561 -0 -1 0 
-316.1655 -165.0005 299.5407 -0 -1 -0 
-316.1655 -165.0005 309.5255 -0 -1 -0 
-316.1655 -165.0005 319.5102 -0 -1 -0 
-316.1655 -165.0005 329.4948 -0 -1 -0 
-316.1655 -165.0005 339.4796 -0 -1 -0 
-316.1655 -165.0005 349.4642 -0 -1 -0 
-316.1655 -165.0005 359.4489 -0 -1 -0 
-316.1655 -165.0005 369.4337 -0 -1 -0 
-316.1655 -165.0005 379.4183 0 -1 -0 
-316.1655 -165.0005 389.403 -0 -1 -0 
-316.1655 -165.0005 399.3876 0 -0.9848191 0.1735839 
-316.1655 -161.8864 409.3724 0 -0.8089626 0.5878601 
-316.1655 -160.9325 410.0001 0 -0.3498366 0.9368108 
-306.1072 -160.9325 0.001342773 0.07786635 -0.5876496 -0.8053601 
-306.1072 -165.0005 9.98468 -0 -0.9305072 -0.3662736 
-306.1072 -165.0005 19.96942 0 -1 -0 
-306.1072 -165.0005 29.95404 0 -1 -0 
-306.1072 -165.0005 39.93878 0 -1 -0 
-306.1072 -165.0005 49.9234 -0 -1 0 
-306.1072 -165.0005 59.90814 -0 -1 0 
-306.1072 -165.0005 69.89288 0 -1 -0 
-306.1072 -165.0005 79.8775 0 -1 -0 
-306.1072 -165.0005 89.86224 0 -1 -0 
-306.1072 -165.0005 99.84686 -0 -1 0 
-306.1072 -165.0005 109.8316 -0 -1 0 
-306.1072 -165.0005 119.8163 0 -1 -0 
-306.1072 -165.0005 129.801 0 -1 -0 
-306.1072 -165.0005 139.7857 0 -1 -0 
-306.1072 -165.0005 149.7703 -0 -1 0 
-306.1072 -165.0005 159.7551 0 -1 -0 
-306.1072 -165.0005 169.7398 0 -1 -0 
-306.1072 -165.0005 179.7244 -0 -1 0 
-306.1072 -165.0005 189.7092 0 -1 -0 
-306.1072 -165.0005 199.6938 -0 -1 0 
-306.1072 -165.0005 209.6785 -0 -1 0 
-306.1072 -165.0005 219.6633 0 -1 -0 
-306.1072 -165.0005 229.6479 0 -1 -0 
-306.1072 -165.0005 239.6326 -0 -1 0 
-306.1072 -165.0005 249.6172 -0 -1 0 
-306.1072 -165.0005 259.602 -0 -1 0 
-306.1072 -165.0005 269.5867 0 -1 -0 
-306.1072 -165.0005 279.5714 0 -1 -0 
-306.1072 -165.0005 289.5561 -0 -1 0 
-306.1072 -165.0005 299.5407 -0 -1 0 
-306.1072 -165.0005 309.5255 0 -1 -0 
-306.1072 -165.0005 319.5102 0 -1 -0 
-306.1072 -165.0005 329.4948 -0 -1 0 
-306.1072 -165.0005 339.4796 0 -1 -0 
-306.1072 -165.0005 349.4642 -0 -1 0 
-306.1072 -165.0005 359.4489 -0 -1 0 
-306.1072 -165.0005 369.4337 0 -1 -0 
-306.1072 -165.0005 379.4183 0 -1 -0 
-306.1072 -165.0005 389.403 -0 -1 0 
-306.1072 -165.0005 399.3876 0 -0.9848191 0.1735839 
-306.1072 -161.8864 409.3724 0 -0.8089626 0.5878602 
-306.1072 -160.9325 410.0001 -0 -0.3498366 0.9368107 
-296.0489 -160.9325 0.001342773 -0.2236266 -0.6742834 -0.7037991 
-296.0489 -165.0005 9.98468 0 -0.9305072 -0.3662737 
-296.0489 -165.0005 19.96942 -0 -1 0 
-296.0489 -165.0005 29.95404 -0 -1 0 
-296.0489 -165.0005 39.93878 -0 -1 0 
-296.0489 -165.0005 49.9234 0 -1 -0 
-296.0489 -165.0005 59.90814 0 -1 -0 
-296.0489 -165.0005 69.89288 -0 -1 0 
-296.0489 -165.0005 79.8775 -0 -1 0 
-296.0489 -165.0005 89.86224 -0 -1 0 
-296.0489 -165.0005 99.84686 0 -1 -0 
-296.0489 -165.0005 109.8316 0 -1 -0 
-296.0489 -165.0005 119.8163 -0 -1 0 
-296.0489 -165.0005 129.801 -0 -1 0 
-296.0489 -165.0005 139.7857 -0 -1 0 
-296.0489 -165.0005 149.7703 0 -1 -0 
-296.0489 -165.0005 159.7551 -0 -1 0 
-296.0489 -165.0005 169.7398 -0 -1 0 
-296.0489 -165.0005 179.7244 0 -1 -0 
-296.0489 -165.0005 189.7092 -0 -1 0 
-296.0489 -165.0005 199.6938 0 -1 -0 
-296.0489 -165.0005 209.6785 0 -1 -0 
-296.0489 -165.0005 219.6633 -0 -1 0 
-296.0489 -165.0005 229.6479 -0 -1 0 
-296.0489 -165.0005 239.6326 0 -1 -0 
-296.0489 -165.0005 249.6172 0 -1 -0 
-296.0489 -165.0005 259.602 0 -1 -0 
-296.0489 -165.0005 269.5867 -0 -1 0 
-296.0489 -165.0005 279.5714 -0 -1 0 
-296.0489 -165.0005 289.5561 0 -1 -0 
-296.0489 -165.0005 299.5407 0 -1 -0 
-296.0489 -165.0005 309.5255 -0 -1 0 
-296.0489 -165.0005 319.5102 -0 -1 0 
-296.0489 -165.0005 329.4948 0 -1 -0 
-296.0489 -165.0005 339.4796 -0 -1 0 
-296.0489 -165.0005 349.4642 0 -1 -0 
-296.0489 -165.0005 359.4489 0 -1 -0 
-296.0489 -165.0005 369.4337 -0 -1 0 
-296.0489 -165.0005 379.4183 -0 -1 0 
-296.0489 -165.0005 389.403 0 -1 -0 
-296.0489 -165.0005 399.3876 -0 -0.9848191 0.1735839 
-296.0489 -161.8864 409.3724 -0.003484617 -0.8114055 0.5844733 
-296.0489 -160.9325 410.0001 -0.0111851 -0.3574636 0.9338601 
-285.9906 -160.9325 0.001342773 -0.1351251 -0.3259163 -0.9356922 
-285.9906 -165.0005 9.98468 0.007359025 -0.9778048 -0.2093886 
-285.9906 -165.0005 19.96942 0 -1 -0 
-285.9906 -165.0005 29.95404 0 -1 -0 
-285.9906 -165.0005 39.93878 -0 -1 0 
-285.9906 -165.0005 49.9234 -0 -1 -0 
-285.9906 -165.0005 59.90814 0 -1 -0 
-285.9906 -165.0005 69.89288 0 -1 -0 
-285.9906 -165.0005 79.8775 -0 -1 0 
-285.9906 -165.0005 89.86224 -0 -1 0 
-285.9906 -165.0005 99.84686 0 -1 -0 
-285.9906 -165.0005 109.8316 -0 -1 0 
-285.9906 -165.0005 119.8163 -0 -1 -0 
-285.9906 -165.0005 129.801 0 -1 -0 
-285.9906 -165.0005 139.7857 0 -1 -0 
-285.9906 -165.0005 149.7703 -0 -1 -0 
-285.9906 -165.0005 159.7551 -0 -1 0 
-285.9906 -165.0005 169.7398 -0 -1 0 
-285.9906 -165.0005 179.7244 -0 -1 -0 
-285.9906 -165.0005 189.7092 0 -1 -0 
-285.9906 -165.0005 199.6938 0 -1 -0 
-285.9906 -165.0005 209.6785 -0 -1 0 
-285.9906 -165.0005 219.6633 -0 -1 -0 
-285.9906 -165.0005 229.6479 -0 -1 0 
-285.9906 -165.0005 239.6326 -0 -1 -0 
-285.9906 -165.0005 249.6172 -0 -1 0 
-285.9906 -165.0005 259.602 0 -1 -0 
-285.9906 -165.0005 269.5867 -0 -1 0 
-285.9906 -165.0005 279.5714 0 -1 -0 
-285.9906 -165.0005 289.5561 -0 -1 0 
-285.9906 -165.0005 299.5407 -0 -1 0 
-285.9906 -165.0005 309.5255 -0 -1 -0 
-285.9906 -165.0005 319.5102 -0 -1 -0 
-285.9906 -165.0005 329.4948 -0 -1 -0 
-285.9906 -165.0005 339.4796 0 -1 -0 
-285.9906 -165.0005 349.4642 -0 -1 0 
-285.9906 -165.0005 359.4489 -0 -1 0 
-285.9906 -165.0005 369.4337 0 -1 -0 
-285.9906 -165.0005 379.4183 0 -1 -0 
-285.9906 -165.0005 389.403 -0 -1 0 
-285.9906 -165.0005 399.3876 -0.06846038 -0.9898711 0.1243718 
-285.9906 -161.8864 409.3724 -0.4074609 -0.678239 0.6115289 
-285.9906 -160.9325 410.3193 -0.4480638 -0.604977 0.658211 
-275.9323 -160.9325 -819.9998 -0.4020309 -0.4020237 -0.822647 
-275.9323 -162.6747 -818.7448 -0.3945427 -0.709714 -0.5836455 
-277.6745 -160.9325 -818.7448 -0.7097223 -0.3945322 -0.5836425 
-275.9323 -165.0002 -808.7601 -0.2032199 -0.9744164 -0.09599152 
-280 -160.9325 -808.7601 -0.9744205 -0.2032062 -0.09597898 
-275.9323 -165.0002 -798.7754 -0.4948879 -0.8689569 -5.189791e-08 
-280 -160.9325 -798.7754 -0.8689675 -0.4948693 6.00363e-09 
-275.9323 -165.0002 -788.7907 -0.4948878 -0.8689569 7.67882e-08 
-280 -160.9325 -788.7907 -0.8689675 -0.4948693 -2.693937e-09 
-275.9323 -165.0002 -778.806 -0.4948878 -0.8689569 -6.631401e-07 
-280 -160.9325 -778.806 -0.8689675 -0.4948693 8.01305e-07 
-275.9323 -165.0002 -768.8214 -0.4948879 -0.8689568 1.40701e-06 
-280 -160.9325 -768.8214 -0.8689674 -0.4948693 -1.60261e-06 
-275.9323 -165.0002 -758.8367 -0.4948879 -0.8689569 -3.863061e-08 
-280 -160.9325 -758.8367 -0.8689674 -0.4948693 -9.852111e-09 
-275.9323 -165.0002 -748.8519 -0.4948879 -0.8689568 -1.280149e-06 
-280 -160.9325 -748.8519 -0.8689675 -0.4948693 1.596042e-06 
-275.9323 -165.0002 -738.8673 -0.4948878 -0.8689569 6.689065e-07 
-280 -160.9325 -738.8673 -0.8689675 -0.4948693 -8.045891e-07 
-275.9323 -165.0002 -728.8826 -0.4948879 -0.8689569 6.540512e-07 
-280 -160.9325 -728.8826 -0.8689674 -0.4948693 -7.96956e-07 
-275.9323 -165.0002 -718.8979 -0.4948879 -0.8689569 -6.458408e-07 
-280 -160.9325 -718.8979 -0.8689675 -0.4948692 7.947369e-07 
-275.9323 -165.0002 -708.9132 -0.4948879 -0.8689569 -0 
-280 -160.9325 -708.9132 -0.8689675 -0.4948693 6.568074e-09 
-275.9323 -165.0002 -698.9285 -0.4948879 -0.8689569 6.559658e-07 
-280 -160.9325 -698.9285 -0.8689674 -0.4948693 -7.936722e-07 
-275.9323 -165.0002 -688.9438 -0.4948879 -0.8689569 -6.689066e-07 
-280 -160.9325 -688.9438 -0.8689674 -0.4948693 8.073084e-07 
-275.9323 -165.0002 -678.9591 -0.4948879 -0.8689569 -0 
-280 -160.9325 -678.9591 -0.8689675 -0.4948693 -0 
-275.9323 -165.0002 -668.9744 -0.4948879 -0.8689569 6.573737e-07 
-280 -160.9325 -668.9744 -0.8689674 -0.4948693 -8.045888e-07 
-275.9323 -165.0002 -658.9897 -0.4948879 -0.8689569 -6.458408e-07 
-280 -160.9325 -658.9897 -0.8689674 -0.4948693 7.947369e-07 
-275.9323 -165.0002 -649.005 -0.4948879 -0.8689569 -6.689065e-07 
-280 -160.9325 -649.005 -0.8689674 -0.4948694 8.01305e-07 
-275.9323 -165.0002 -639.0204 -0.4948879 -0.8689569 2.012486e-06 
-280 -160.9325 -639.0204 -0.8689674 -0.4948693 -2.403915e-06 
-275.9323 -165.0002 -629.0356 -0.4948878 -0.8689569 -2.644677e-06 
-280 -160.9325 -629.0356 -0.8689675 -0.4948693 3.223744e-06 
-275.9323 -165.0002 -619.051 -0.4948878 -0.8689569 2.00663e-06 
-280 -160.9325 -619.051 -0.8689674 -0.4948693 -2.416486e-06 
-275.9323 -165.0002 -609.0663 -0.4948879 -0.8689568 6.919722e-07 
-280 -160.9325 -609.0663 -0.8689674 -0.4948694 -8.013049e-07 
-275.9323 -165.0002 -599.0815 -0.4948878 -0.8689569 -2.667742e-06 
-280 -160.9325 -599.0815 -0.8689675 -0.4948693 3.221614e-06 
-275.9323 -165.0002 -589.0969 -0.4948878 -0.8689569 2.00672e-06 
-280 -160.9325 -589.0969 -0.8689674 -0.4948694 -2.410483e-06 
-275.9323 -165.0002 -579.1122 -0.4948878 -0.8689569 -6.516073e-07 
-280 -160.9325 -579.1122 -0.8689675 -0.4948692 8.01305e-07 
-275.9323 -165.0002 -569.1275 -0.4948879 -0.8689568 5.766436e-09 
-280 -160.9325 -569.1275 -0.8689675 -0.4948693 -3.284037e-09 
-275.9323 -165.0002 -559.1428 -0.4948879 -0.8689569 7.182704e-07 
-280 -160.9325 -559.1428 -0.8689674 -0.4948693 -8.073084e-07 
-275.9323 -165.0002 -549.1581 -0.4948879 -0.8689569 -6.400743e-07 
-280 -160.9325 -549.1581 -0.8689675 -0.4948692 7.947369e-07 
-275.9323 -165.0002 -539.1734 -0.4948879 -0.8689569 -0 
-280 -160.9325 -539.1734 -0.8689675 -0.4948693 3.284037e-09 
-275.9323 -165.0002 -529.1887 -0.4948879 -0.8689569 7.182704e-07 
-280 -160.9325 -529.1887 -0.8689674 -0.4948693 -8.122217e-07 
-275.9323 -165.0002 -519.204 -0.4948879 -0.8689569 -6.400743e-07 
-280 -160.9325 -519.204 -0.8689674 -0.4948693 7.947369e-07 
-275.9323 -165.0002 -509.2193 -0.4948878 -0.8689569 3.459861e-07 
-280 -160.9325 -509.2193 -0.8689674 -0.4948694 -4.006525e-07 
-275.9323 -165.0002 -499.2346 -0.4948879 -0.8689569 -3.011217e-07 
-280 -160.9325 -499.2346 -0.8689674 -0.4948694 3.951941e-07 
-275.9323 -165.0002 -489.2499 -0.4948879 -0.8689569 -6.919722e-07 
-280 -160.9325 -489.2499 -0.8689675 -0.4948693 8.01305e-07 
-275.9323 -165.0002 -479.2653 -0.4948878 -0.8689569 6.934702e-07 
-280 -160.9325 -479.2653 -0.8689675 -0.4948693 -8.078731e-07 
-275.9323 -165.0002 -469.2806 -0.4948879 -0.8689569 3.728418e-07 
-280 -160.9325 -469.2806 -0.8689675 -0.4948693 -4.006525e-07 
-275.9323 -165.0002 -459.2959 -0.4948897 -0.8689558 -0 
-280 -160.9325 -459.2959 -0.8689674 -0.4948693 6.003628e-09 
-275.9323 -165.0002 -449.3112 -0.4948916 -0.8689548 -3.344481e-07 
-280 -160.9325 -449.3112 -0.8689672 -0.4948697 4.072174e-07 
-275.9323 -165.0002 -439.3265 -0.4948934 -0.8689537 3.22913e-07 
-280 -160.9325 -439.3265 -0.8689672 -0.4948697 -4.006494e-07 
-275.9323 -165.0002 -429.3418 -0.4948934 -0.8689537 1.729891e-08 
-280 -160.9325 -429.3418 -0.8689672 -0.4948696 -0 
-275.9323 -165.0002 -419.3571 -0.4612285 -0.8768478 0.1356699 
-280 -160.9325 -419.3571 -0.8768594 -0.4612081 0.1356646 
-275.9323 -161.8867 -409.3724 -0.4334878 -0.9011595 9.647156e-06 
-276.8865 -160.9325 -409.3724 -0.9011791 -0.433447 8.450477e-06 
-275.9323 -165.0003 -399.3877 -0.4612347 -0.876844 -0.1356725 
-279.9999 -160.9325 -399.3877 -0.8768631 -0.4612017 -0.1356621 
-275.9323 -165.0003 -389.403 -0.4949021 -0.8689488 3.92105e-07 
-279.9999 -160.9325 -389.403 -0.8689723 -0.4948608 -4.006436e-07 
-275.9323 -165.0003 -379.4183 -0.4949022 -0.8689488 -1.009094e-06 
-279.9999 -160.9325 -379.4183 -0.8689722 -0.4948609 1.201931e-06 
-275.9323 -165.0003 -369.4337 -0.494902 -0.8689488 6.784354e-07 
-279.9999 -160.9325 -369.4337 -0.8689724 -0.4948607 -8.070309e-07 
-275.9323 -165.0003 -359.449 -0.494902 -0.8689488 1.355069e-06 
-279.9999 -160.9325 -359.449 -0.8689722 -0.4948608 -1.607494e-06 
-275.9323 -165.0003 -349.4642 -0.494902 -0.8689489 -2.329566e-06 
-279.9999 -160.9325 -349.4642 -0.8689724 -0.4948607 2.81764e-06 
-275.9323 -165.0003 -339.4796 -0.494902 -0.8689488 1.31849e-06 
-279.9999 -160.9325 -339.4796 -0.8689724 -0.4948607 -1.608565e-06 
-275.9323 -165.0003 -329.4949 -0.494902 -0.8689488 -0 
-279.9999 -160.9325 -329.4949 -0.8689724 -0.4948608 -1.313585e-08 
-275.9323 -165.0003 -319.5102 -0.4949021 -0.8689488 -3.171438e-07 
-279.9999 -160.9325 -319.5102 -0.8689724 -0.4948607 4.006436e-07 
-275.9323 -165.0003 -309.5255 -0.494902 -0.8689489 3.632739e-07 
-279.9999 -160.9325 -309.5255 -0.8689724 -0.4948608 -4.063873e-07 
-275.9323 -165.0003 -299.5408 -0.4949021 -0.8689488 2.3065e-08 
-279.9999 -160.9325 -299.5408 -0.8689722 -0.4948609 6.567927e-09 
-275.9323 -165.0003 -289.5561 -0.4949021 -0.8689488 -3.6904e-07 
-279.9999 -160.9325 -289.5561 -0.8689723 -0.4948608 4.006436e-07 
-275.9323 -165.0003 -279.5714 -0.494902 -0.8689489 3.200664e-07 
-279.9999 -160.9325 -279.5714 -0.8689724 -0.4948608 -3.986969e-07 
-275.9323 -165.0003 -269.5867 -0.4949039 -0.8689477 -1.327089e-06 
-279.9999 -160.9325 -269.5867 -0.8689723 -0.4948608 1.61571e-06 
-275.9323 -165.0003 -259.6021 -0.4949058 -0.8689467 2.496568e-06 
-279.9999 -160.9325 -259.6021 -0.8689721 -0.4948611 -3.0146e-06 
-275.9323 -165.0003 -249.6173 -0.4949076 -0.8689457 -1.323749e-06 
-279.9999 -160.9325 -249.6173 -0.8689722 -0.4948611 1.605286e-06 
-275.9323 -165.0003 -239.6326 -0.4949075 -0.8689457 -0 
-279.9999 -160.9325 -239.6326 -0.8689721 -0.4948612 -0 
-275.9323 -165.0003 -229.6479 -0.4949076 -0.8689457 -1.041767e-06 
-279.9999 -160.9325 -229.6479 -0.8689722 -0.494861 1.204767e-06 
-275.9323 -165.0003 -219.6633 -0.4949075 -0.8689457 9.860065e-07 
-279.9999 -160.9325 -219.6633 -0.8689722 -0.494861 -1.205205e-06 
-275.9323 -165.0003 -209.6786 -0.4949076 -0.8689456 1.144938e-06 
-279.9999 -160.9325 -209.6786 -0.8689721 -0.4948611 -1.412093e-06 
-275.9323 -165.0003 -199.6938 -0.4949075 -0.8689457 -2.156528e-06 
-279.9999 -160.9325 -199.6938 -0.8689722 -0.4948611 2.620582e-06 
-275.9323 -165.0003 -189.7092 -0.4949075 -0.8689457 9.802404e-07 
-279.9999 -160.9325 -189.7092 -0.8689721 -0.4948611 -1.201921e-06 
-275.9323 -165.0003 -179.7245 -0.4949076 -0.8689456 -0 
-279.9999 -160.9325 -179.7245 -0.8689722 -0.4948611 -0 
-275.9323 -165.0003 -169.7398 -0.4949076 -0.8689456 2.248786e-07 
-279.9999 -160.9325 -169.7398 -0.8689721 -0.4948611 -2.097583e-07 
-275.9323 -165.0003 -159.7551 -0.4949076 -0.8689457 -1.96048e-07 
-279.9999 -160.9325 -159.7551 -0.8689722 -0.4948611 2.036041e-07 
-275.9323 -165.0003 -149.7704 -0.4949076 -0.8689456 -3.705463e-08 
-279.9999 -160.9325 -149.7704 -0.8689722 -0.494861 6.567874e-09 
-275.9323 -165.0003 -139.7857 -0.4949076 -0.8689456 2.537092e-07 
-279.9999 -160.9325 -139.7857 -0.8689721 -0.4948611 -2.059196e-07 
-275.9323 -165.0003 -129.801 -0.4949076 -0.8689456 -1.787497e-07 
-279.9999 -160.9325 -129.801 -0.8689722 -0.494861 2.036041e-07 
-275.9323 -165.0003 -119.8163 -0.4949075 -0.8689457 -1.0458e-06 
-279.9999 -160.9325 -119.8163 -0.8689722 -0.4948611 1.31657e-06 
-275.9323 -165.0003 -109.8317 -0.4949076 -0.8689456 2.127698e-06 
-279.9999 -160.9325 -109.8317 -0.8689722 -0.4948611 -2.522065e-06 
-275.9323 -165.0003 -99.84692 -0.4949076 -0.8689457 -1.216651e-06 
-279.9999 -160.9325 -99.84692 -0.8689721 -0.4948611 1.502395e-06 
-275.9323 -165.0003 -89.86224 -0.4949077 -0.8689456 9.225786e-08 
-279.9999 -160.9325 -89.86224 -0.8689721 -0.4948611 -1.05086e-07 
-275.9323 -165.0003 -79.87756 -0.4949077 -0.8689456 -0 
-279.9999 -160.9325 -79.87756 -0.8689721 -0.4948611 -0 
-275.9323 -165.0003 -69.89288 -0.4949092 -0.8689447 7.16886e-07 
-279.9999 -160.9325 -69.89288 -0.8689722 -0.4948611 -8.406881e-07 
-275.9323 -165.0003 -59.90814 -0.4949107 -0.8689438 -6.919252e-07 
-279.9999 -160.9325 -59.90814 -0.8689719 -0.4948614 8.540072e-07 
-275.9323 -165.0003 -49.92346 -0.4949124 -0.8689429 -7.91242e-08 
-279.9999 -160.9325 -49.92346 -0.8689719 -0.4948614 5.911048e-08 
-275.9323 -165.0003 -39.93878 -0.4949124 -0.8689429 4.612804e-08 
-279.9999 -160.9325 -39.93878 -0.8689719 -0.4948615 -7.881398e-08 
-275.9323 -165.0003 -29.9541 -0.4949124 -0.8689429 1.395187e-08 
-279.9999 -160.9325 -29.9541 -0.8689719 -0.4948614 1.840247e-08 
-275.9323 -165.0003 -19.96942 -0.4949124 -0.8689429 5.954579e-07 
-279.9999 -160.9325 -19.96942 -0.8689719 -0.4948614 -7.684361e-07 
-275.9323 -165.0003 -9.98468 -0.4524329 -0.8743129 0.175731 
-279.9999 -160.9325 -9.98468 -0.6972235 -0.7070297 -0.1182729 
-275.9323 -160.9325 -0.001281738 -0.1965832 -0.9399529 0.2790049 
-275.9323 -160.9325 0.001342773 -0.1965834 -0.9399528 0.279005 
-275.9323 -165.0005 9.98468 0 -0.9776276 -0.2103435 
-275.9323 -165.0005 19.96942 -0 -1 0 
-275.9323 -165.0005 29.95404 -0 -1 0 
-275.9323 -165.0005 39.93878 -0 -1 0 
-275.9323 -165.0005 49.9234 0 -1 -0 
-275.9323 -165.0005 59.90814 0 -1 -0 
-275.9323 -165.0005 69.89288 -0 -1 0 
-275.9323 -165.0005 79.8775 -0 -1 0 
-275.9323 -165.0005 89.86224 -0 -1 0 
-275.9323 -165.0005 99.84686 0 -1 -0 
-275.9323 -165.0005 109.8316 0 -1 -0 
-275.9323 -165.0005 119.8163 -0 -1 0 
-275.9323 -165.0005 129.801 -0 -1 0 
-275.9323 -165.0005 139.7857 -0 -1 0 
-275.9323 -165.0005 149.7703 0 -1 -0 
-275.9323 -165.0005 159.7551 -0 -1 0 
-275.9323 -165.0005 169.7398 -0 -1 0 
-275.9323 -165.0005 179.7244 0 -1 -0 
-275.9323 -165.0005 189.7092 -0 -1 0 
-275.9323 -165.0005 199.6938 0 -1 -0 
-275.9323 -165.0005 209.6785 0 -1 -0 
-275.9323 -165.0005 219.6633 -0 -1 0 
-275.9323 -165.0005 229.6479 -0 -1 0 
-275.9323 -165.0005 239.6326 0 -1 -0 
-275.9323 -165.0005 249.6172 0 -1 -0 
-275.9323 -165.0005 259.602 0 -1 -0 
-275.9323 -165.0005 269.5867 -0 -1 0 
-275.9323 -165.0005 279.5714 -0 -1 0 
-275.9323 -165.0005 289.5561 0 -1 -0 
-275.9323 -165.0005 299.5407 0 -1 -0 
-275.9323 -165.0005 309.5255 -0 -1 0 
-275.9323 -165.0005 319.5102 -0 -1 0 
-275.9323 -165.0005 329.4948 0 -1 -0 
-275.9323 -165.0005 339.4796 -0 -1 0 
-275.9323 -165.0005 349.4642 0 -1 -0 
-275.9323 -165.0005 359.4489 0 -1 -0 
-275.9323 -165.0005 369.4337 -0 -1 0 
-275.9323 -165.0005 379.4183 -0 -1 0 
-275.9323 -165.0005 389.403 0 -1 -0 
-275.9323 -165.0005 399.3876 -0.07169475 -0.9946504 -0.0743678 
-275.9323 -165.9612 409.3724 -0.3713736 -0.8842028 -0.2833144 
-279.9999 -160.9325 419.3571 -0.9784626 -0.1782262 0.1041458 
-279.9999 -160.9325 429.3417 -0.9936143 -2.990112e-08 0.112831 
-279.9999 -160.9325 439.3265 -1 -0 -0 
-279.9999 -160.9325 449.3111 -1 -0 -0 
-279.9999 -160.9325 459.2958 -1 -0 -0 
-279.9999 -160.9325 469.2806 -1 -0 -0 
-279.9999 -160.9325 479.2652 -1 -0 -0 
-279.9999 -160.9325 489.2499 -1 -0 -0 
-279.9999 -160.9325 499.2346 -1 -0 -0 
-279.9999 -160.9325 509.2193 -1 -0 -0 
-279.9999 -160.9325 519.204 -1 -0 -0 
-279.9999 -160.9325 529.1887 -1 -0 -0 
-279.9999 -160.9325 539.1734 -1 -0 -0 
-279.9999 -160.9325 549.158 -1 -0 -0 
-279.9999 -160.9325 559.1428 -1 -0 -0 
-279.9999 -160.9325 569.1275 -1 -0 -0 
-279.9999 -160.9325 579.1121 -1 -0 -0 
-279.9999 -160.9325 589.0969 -1 -0 -0 
-279.9999 -160.9325 599.0815 -1 -0 -0 
-279.9999 -160.9325 609.0662 -1 -0 -0 
-279.9999 -160.9325 619.051 -1 -0 -0 
-279.9999 -160.9325 629.0356 -1 -0 -0 
-279.9999 -160.9325 639.0203 -1 -0 -0 
-279.9999 -160.9325 649.0049 -1 -0 -0 
-279.9999 -160.9325 658.9897 -1 -0 -0 
-279.9999 -160.9325 668.9744 -1 -0 -0 
-279.9999 -160.9325 678.959 -1 -0 -0 
-279.9999 -160.9325 688.9438 -1 -0 -0 
-279.9999 -160.9325 698.9284 -1 -0 -0 
-279.9999 -160.9325 708.9131 -1 -0 -0 
-279.9999 -160.9325 718.8979 -1 -0 -0 
-279.9999 -160.9325 728.8825 -1 -0 -0 
-279.9999 -160.9325 738.8672 -1 -0 -0 
-279.9999 -160.9325 748.8519 -1 -0 -0 
-279.9999 -160.9325 758.8366 -1 -0 -0 
-279.9999 -160.9325 768.8214 -1 -0 -0 
-279.9999 -160.9325 778.806 -1 -0 -0 
-279.9999 -160.9325 788.7907 -1 -0 -0 
-279.9999 -160.9325 798.7753 -1 -0 -0 
-279.9999 -160.9325 808.7601 -0.9895402 2.13778e-08 0.1442578 
-277.6743 -160.9325 818.7448 -0.8237126 2.738689e-07 0.5670075 
-275.9323 -160.9325 819.9996 -0.3694952 -3.391913e-07 0.9292327 
-265.8741 -160.9325 -819.9998 -0.03093715 -0.4486288 -0.8931825 
-265.8741 -162.6747 -818.7448 -0.03182869 -0.7741501 -0.6322015 
-265.8741 -165.0004 -808.7601 -0 -0.9895395 -0.1442622 
-265.8741 -165.0004 -798.7754 -0.06657612 -0.9977813 -5.519295e-08 
-265.8741 -165.0004 -788.7907 -0.06657612 -0.9977813 1.213454e-07 
-265.8741 -165.0004 -778.806 -0.06657612 -0.9977813 -4.764992e-06 
-265.8741 -165.0004 -768.8214 -0.06657614 -0.9977813 -1.934436e-07 
-265.8741 -165.0004 -758.8367 -0.06657612 -0.9977813 -0 
-265.8741 -165.0004 -748.8519 -0.06657611 -0.9977814 1.9354e-07 
-265.8741 -165.0004 -738.8673 -0.06657614 -0.9977813 4.893775e-06 
-265.8741 -165.0004 -728.8826 -0.06657612 -0.9977813 5.004161e-06 
-265.8741 -165.0004 -718.8979 -0.06657612 -0.9977813 -5.059354e-06 
-265.8741 -165.0004 -708.9132 -0.06657612 -0.9977813 -0 
-265.8741 -165.0004 -698.9285 -0.06657612 -0.9977813 5.004161e-06 
-265.8741 -165.0004 -688.9438 -0.06657612 -0.9977813 -4.85698e-06 
-265.8741 -165.0004 -678.9591 -0.06657612 -0.9977813 -0 
-265.8741 -165.0004 -668.9744 -0.06657612 -0.9977813 5.004161e-06 
-265.8741 -165.0004 -658.9897 -0.06657612 -0.9977813 -5.040957e-06 
-265.8741 -165.0004 -649.005 -0.06657615 -0.9977813 -4.893775e-06 
-265.8741 -165.0004 -639.0204 -0.06657612 -0.9977813 -2.939057e-07 
-265.8741 -165.0004 -629.0356 -0.06657611 -0.9977814 3.896846e-07 
-265.8741 -165.0004 -619.051 -0.06657616 -0.9977813 -2.924498e-07 
-265.8741 -165.0004 -609.0663 -0.06657614 -0.9977813 5.059353e-06 
-265.8741 -165.0004 -599.0815 -0.06657612 -0.9977813 3.902734e-07 
-265.8741 -165.0004 -589.0969 -0.06657613 -0.9977813 -2.929921e-07 
-265.8741 -165.0004 -579.1122 -0.06657612 -0.9977813 -5.040957e-06 
-265.8741 -165.0004 -569.1275 -0.06657612 -0.9977813 -0 
-265.8741 -165.0004 -559.1428 -0.06657612 -0.9977813 4.984218e-06 
